# 3D point list with one line of data per point:
#   POINT3D_ID, X, Y, Z, R, G, B, ERROR, TRACK[] as (IMAGE_ID, POINT2D_IDX)
# Number of points: 365, mean track length: 6.7477683680476082
3132 -0.32868942747202329 1.4781621605313335 2.6436532400222532 13 72 15 0.91010029848190754 40 52 78 44 16 51 82 64 44 57 14 60 46 57 80 54 13 50 81 70 45 61 83 58
2479 0.88413428815616513 1.9987349341588794 3.0171233709225485 48 125 61 1.3413287863011634 31 332 69 438 79 339 87 443 52 306 91 299 90 117 54 263 55 278 92 384
2480 0.39610117924029137 1.3911740480940149 3.1539040574041968 65 141 53 0.98358120578890962 95 479 69 442 43 275 87 365 51 354 88 173 53 349
2561 0.77109644039564784 1.6052372576847063 2.9185078530843915 18 99 23 0.62789404326469789 31 127 96 113
2482 0.82146629149024564 2.0684051752506867 2.9459256516864625 14 70 30 0.97299713449171366 48 94 15 54 20 98 85 80 49 55 86 67 50 64 21 166 23 47 56 49 93 43 22 47 31 27 69 36 43 27 96 25 79 26 51 22
2483 0.18533675430534277 1.6953332465869668 2.5386574681117251 5 99 5 1.1341488854944883 48 298 57 250 94 309 23 177 56 433 31 421 95 468 69 75 94 133 56 87 31 60 79 60 79 411 87 73 88 46 52 260 91 41
2484 0.65795089106799975 1.5526628940157325 3.2105360413618826 45 127 63 2.062449972157185 93 149 22 156 57 204 69 159 31 96 95 142 96 149
2565 0.34228562188079814 2.2795013521689089 3.0806853355361459 126 175 172 0.93771962484361904 31 102 96 145
5178 0.55580845473584717 1.4624959317998405 3.4305401614317188 0 63 4 0.8155645412852971 11 448 33 420 71 384 6 368 2 387
2485 -0.59079562635895611 1.6798166804346897 2.2834689398702324 48 121 47 1.4600468977078152 56 100 22 172 69 185 95 193 96 235
2486 -0.0015442127941823437 1.576155668664621 2.5633472986567951 13 98 8 0.32397465913902113 31 354 95 307 69 191 57 139 23 403 56 202 43 266 79 279 51 262
2487 0.39485547028903084 1.6153925670865847 2.7058153265929086 1 80 0 0.92543873559042944 84 440 49 291 50 187 94 302 56 206 93 199 31 407 69 199 31 404 95 422 96 430 87 357 51 187 88 174 52 180 91 195
2569 2.7559232582182527 2.139435336747844 2.9655365553084212 0 0 0 0.094725905426139373 22 71 95 180
3086 -0.67999882510572773 2.2928122383673477 2.432284736488957 167 187 198 1.6569447285851213 78 17 77 16 42 17 7 15 8 162 80 20
2489 0.31182904985496179 2.2049999917323597 2.8833127126517955 13 77 19 1.4319244864907175 22 117 31 116 56 144 95 177 31 322 69 218 69 330 86 338 50 237 23 234 22 221 57 247 93 325 43 114 79 151 87 314
2490 0.51208475155726241 1.8374646482245887 2.7802600452518687 0 46 0 2.0782916076898905 50 165 21 378 57 391 23 381 93 398 21 94 22 57 95 81 69 67 31 98 31 390 95 336 96 220 49 373
2494 0.66630248602409015 1.6267677661934101 3.3670448527893004 157 172 181 1.8763405463824234 79 21 96 43 51 34 87 28 52 274
3084 1.1174788742742867 1.7958378476431354 2.8430435385305031 172 183 185 1.6137487174934759 13 2 7 3 42 3 9 2 41 3 8 2 39 4
2495 0.56294432562795105 2.1211973999377065 3.0548999934903356 28 119 48 1.6862232624405313 69 55 95 47 43 42 96 70 87 64 51 71
3878 0.86500894249993643 1.94496218456339 2.9561605005934148 33 106 24 1.5595124730691037 76 10 75 8 74 9
2496 0.66371845590048117 1.4975843059877609 3.144783409626267 18 87 24 0.81973450638147616 69 59 43 50 79 35 51 45 88 28
2641 0.5467956783222353 1.6987929420340719 2.9797350678471104 48 127 48 1.4482712165643363 43 372 96 168 79 206
3667 -0.6936394583141976 1.9471236381634196 2.3879305862837037 10 99 15 0.53687489025762158 39 329 9 442 8 348 4 406
2498 0.68163082936841013 1.4194252234803768 2.3413780043604877 58 136 68 1.8496452386889226 69 19 43 86
2500 0.77636918016546619 1.8163874723936444 3.0223946634933414 52 140 64 1.1554908562578121 95 357 43 116 79 118
3156 0.70893912091293354 1.5344293752987672 3.3191764543237032 26 77 20 0.87785896694364607 16 471 7 246
2503 1.2028119365669554 0.83062633745870029 3.1660325958221818 143 75 54 0.25792001430252554 69 190 43 134
3886 -0.21972259586024326 0.79064103857751744 1.0035453329284267 36 32 31 0.56667480979071017 9 74 8 73
2504 0.57462654848158234 1.6909327435114034 2.9968778461683727 27 108 32 0.4953201239269247 95 317 43 194 79 293
3166 -0.66046361865321412 2.2317050731005272 2.3230448579750913 150 198 176 0.58695385820683033 16 128 77 413 9 467
2505 0.7085571777330395 1.4877377941586507 3.4199983480487086 39 102 51 0.5980760173027635 69 156 43 196
2512 0.44409455151057547 1.9034943075658619 1.9668259543715798 0 0 0 1.8426584020704646 31 329 69 366
2513 -0.90711725618993955 1.875618285508742 2.2880726602282304 167 201 182 1.7821353315825064 43 238 96 242 87 240 88 223 53 381 91 332 54 183
2516 0.37100530756648259 1.3563504856274822 3.2656772206354878 22 94 21 0.33064657553282534 95 272 43 274 79 358
3236 0.67307037603111985 1.3833572885985095 3.3439624050836954 21 60 26 0.84113346852270232 16 244 42 246
2519 0.3805090598370629 1.4916190195434254 2.8235822525253806 59 150 56 0.20366238122639713 95 245 43 297 79 409
3246 0.050498175903371106 1.6632431018392995 2.4355243126243984 15 89 2 0.26229430645400564 77 338 42 300 7 281
2521 0.51067345657739482 2.235479217716148 3.140860399762635 114 170 157 0.58785093375153841 22 443 43 311 96 342 87 333 79 331 88 341
2524 0.5023009401263947 1.4625194327182931 3.2105062805420745 31 115 40 1.368770165345814 95 399 43 330 79 198 95 401 88 155 90 358 54 317 55 341 89 216
2733 0.73598991630856037 1.5214374859792956 3.2044368327635202 25 96 28 1.3657851349524714 96 297 87 432 51 299
2528 0.36141954295538903 2.0551080579089569 2.6494700627730436 27 113 42 0.1428909407347651 69 305 43 364 96 308
3190 -0.35879223675765021 1.5090505394224192 2.7484352317109888 10 59 7 1.3160231472346451 77 81 42 62 7 37 39 39 9 27
2529 0.52624541253831192 1.933800435216217 2.7804259161399956 9 90 14 0.49702112767876638 56 323 43 368 96 309 87 301
2532 0.73821741709384758 1.8278846185081157 3.0295000191482071 87 169 95 0.80797260649548319 95 174 43 389 96 319 79 313 87 322 51 146 88 162 52 277 91 357 53 289 54 247 90 281
2677 -0.14019071709781783 1.5023662592808742 2.2952409865176775 31 75 29 1.5342312479135305 69 240 79 230 57 116 93 178 94 70
2533 0.52287164171343858 1.6603083345319363 2.7554686943498066 11 106 14 1.0227545644824041 95 426 43 396 96 382 79 379 51 373 52 334 53 343
3188 -0.28939673364188195 1.841529731644675 2.481265717022366 12 47 17 0.076298737853256277 77 78 42 56 7 46
2536 -0.97277644853589218 1.631794570069002 2.4201948597725229 176 203 187 0.47370557073038505 95 256 43 414
2681 0.78900444438721207 2.0712499215845774 2.9590331733868345 14 87 22 1.7009491416335498 15 417 56 357 95 385 31 448 69 342 96 344 79 335 22 334 43 307 96 343 87 324
2537 0.096900511422920374 1.6460667955425807 2.5038268124310981 56 154 58 1.4504775218814301 95 315 43 421 96 322 79 263 87 283
3707 -0.79932659959413233 -0.0088125483051291979 2.2337512979685461 56 23 2 0.79299620412686611 76 166 74 94
2538 0.89772506751829395 0.77191914464053557 3.5068016003771478 35 25 15 1.1607478286917527 69 182 43 423
2540 -0.031332546970049703 2.2652900865118126 2.6813827472328602 7 83 24 1.1575274510906406 93 218 43 363 50 374 21 132 22 219 69 309
2685 0.61525734859614278 2.1439228240061508 3.0063792342171101 53 108 55 2.105747984962707 86 335 93 331 96 339 48 159 15 142 20 217 86 329 50 435 21 135 23 151 56 142 93 330 31 217 95 382 56 360 69 338 43 212 79 334 79 245 45 443 18 219 84 201
3196 0.46138558958218268 1.99934896960186 2.6004167540172594 147 171 142 1.4233911605355996 77 170 42 97 7 62
2543 0.98874217373050666 1.595071924807582 2.9537388042371018 117 140 122 1.1681530084332732 31 293 22 380 69 295 43 375 96 313 51 312 69 296
2544 1.1332652533519427 1.490598643991359 3.1463591297535043 47 99 61 0.091093271482851207 95 345 43 384
2625 0.41256894557694695 1.4562834356625094 2.9026191822241119 59 148 58 0.55446863460502727 96 110 79 112 88 96 52 130 91 81 53 76
3142 0.70636036807127756 1.8121255287094673 2.8935819731365022 12 51 5 1.6485205695683094 82 309 44 324 46 307 80 302 16 170 78 126 77 167 14 292
2545 -0.84102922921287671 1.7605025606296834 2.3402522722440491 15 88 26 1.0350926242628515 48 182 20 185 84 242 15 409 49 176
3651 -0.69920709581707607 1.7489578617023021 2.6436767914774082 41 122 46 1.4683377145647465 39 331 9 317 76 390 74 266 41 434 78 253 40 327 16 424
2546 0.41356162022875564 1.9137707897516212 2.5171376843261331 58 154 54 1.6191583539194867 94 249 57 223 43 365 21 386 31 378 69 228 95 330 51 198
2549 -0.25681942413573122 1.5223271543945582 2.4567834148970369 30 108 30 1.7661276496798981 43 10 96 8 79 7 51 6
2550 0.31659507129896897 1.9782055927510167 2.6097826290288544 0 60 3 0.50468688939897277 69 14 96 15 79 14
3140 -0.33313959197837689 1.9472258771793338 2.5084964006838968 37 128 42 1.8886989449139713 46 488 13 455 40 374 16 446 80 443 40 378 78 424
2551 -0.57638266274919214 2.3127675663706211 2.4041832644638772 120 151 146 1.2490082896240762 43 13 96 19 87 25 51 15 88 10
2552 0.69845716992261486 2.1426857305338287 3.0268581609991281 22 92 36 0.25304033278393961 69 23 96 24 79 18
2633 1.315800649269808 1.5120912264548643 3.1357396647855666 165 192 180 0.78453693029763216 96 144 79 154
3150 0.6640884228097087 1.5156839289474462 3.2424263041881201 27 82 17 1.3558825979749554 77 132 76 74 75 75
2553 0.56323540898482227 2.119554882191347 2.9037312937466333 34 115 48 1.3530142859531789 69 52 96 40 87 52 88 72
3659 -0.70719543562309417 1.569458153622256 2.5420475297422702 1 64 11 0.58002358775039975 39 410 9 390 41 417 8 276 4 405 38 475
2554 0.50160400063253918 2.1304748368552731 2.834357193857286 35 112 44 1.0678362278633509 22 31 43 28 96 42 79 38 87 63 51 48
2556 -0.38920338550545153 1.5182937835433756 2.4780944299071033 40 113 31 0.55264498752730218 43 95 96 72 79 70
2637 0.38691397025698115 1.3837836964978183 3.2548762181689712 60 135 51 1.5455345435708239 43 132 69 415 95 222 79 186 53 184 90 183 54 310 55 328 52 189 92 117 59 280
3148 -0.19932648695622482 1.71868349077826 2.4038063530754692 13 103 17 0.38639653229071347 80 78 77 98 76 82 38 127
2559 -0.9153702036569461 1.6655260174889122 2.4760664231462948 49 128 39 0.50293196036786847 43 84 96 101 79 110
2563 -0.39859798593585405 1.7360644601633384 2.3918908198884838 41 106 43 1.5106317958554085 43 160 96 127 79 143 87 151 51 166 52 119 88 129
2564 -0.60363886325911487 1.7711419095660632 2.2697020859389729 49 111 45 0.19439278399181381 43 105 96 130 79 148
4017 -2.0696012012131106 -0.16798655776957713 0.7439347488992446 21 16 10 0.37431658548166141 41 6 38 3
2566 0.78448069648716678 1.8384434603371218 3.048815589415149 20 102 25 0.45193534130360352 43 113 96 146 79 152
2570 -0.63008598131989002 1.7939928047412479 2.2642643135543952 9 69 5 0.51991706674161298 43 153 96 187 79 170
4031 -0.63102414721750799 2.1929468470466027 2.2778293799129101 22 80 21 0.31649361381907026 75 84 38 82 4 99
2572 -0.73258731377786801 1.8654193914032604 2.3850527287258263 7 63 8 1.1586048921379957 43 170 96 193 51 246 52 223 88 238 53 226
2573 -0.18501557090907714 1.7018544111921587 2.2875494184129677 15 87 11 0.17887277029150028 96 196 87 180
4025 1.2332497111979752 1.4407643686478022 3.0566515239864525 31 90 26 0.96884817242305277 41 35 74 60 4 51 38 38
2574 0.54088941598147267 1.661308665208181 2.8093621206788217 42 128 35 0.39335933175356858 43 324 96 210 87 383 51 376 52 191 91 245 53 354 55 304
3458 -0.56125977460556598 1.8726634047321145 2.5421440538840829 5 73 15 1.6894747679645492 42 495 76 484
2579 -0.23568653640560835 1.8935216558547685 2.4243136170165815 29 88 32 0.51799453203678336 95 473 96 237
3969 -0.92978080724167078 1.6885993634886476 2.7167988079254082 126 166 165 0.91892866705384402 41 73 75 146 37 188 73 394 3 241 12 238
2582 0.013789953756198955 1.5080379540393511 2.6402588188397398 9 94 6 1.2666856887344236 31 256 96 277 51 260 88 438 52 168 53 258 90 249 54 222 89 297 55 364
2583 -0.060188771961080106 1.6137417093571844 2.5070771036527999 7 67 0 0.24062948703622325 95 306 96 278 79 273
6037 -0.53151911309049504 1.6011742368800199 2.7239067485376269 22 73 27 0.95575337917463765 32 240 2 329 67 195 72 149 35 284 12 244 4 139 37 464 11 226 71 233 33 154 6 393 68 146 2 136 30 157 1 119 27 192 29 315 30 343
2586 0.5112628558450123 1.8578730258071432 2.8306782991506525 32 115 39 1.2607472319598865 43 199 96 304 79 300 87 293 52 365 88 295 91 260 54 306
3466 -0.74528178866041461 1.7225036680797345 2.530325703134741 28 91 32 1.3239969144830623 46 431 80 481 82 476 44 398 14 226 13 416 16 426 40 328 78 548 77 251 42 341 7 384 76 188
3977 -0.20846755525609265 1.8329493791589411 2.4004186305340665 60 135 49 1.6515880696549818 8 124 75 217 38 146 4 259 73 517 37 446 3 323 72 528
2590 0.13797259328586334 1.6277562469653835 2.5150461249527587 14 105 9 0.39656318988377515 31 281 96 315 87 254 88 381 91 183
2591 0.72226285426829773 1.7600518055009147 3.1822894367870074 29 86 44 0.73642944556434209 43 385 95 172 96 316 79 311 87 319 51 316 88 325 52 278 53 292
2592 0.18809231603093446 2.2410463898954078 2.8778235169674073 1 63 7 0.21438838632562895 31 321 43 390 96 318
3410 -0.28820681542567184 1.4440228667483361 2.671657421807399 29 131 22 1.1626289093261071 76 36 74 44 37 52 73 46 72 35 12 44 34 49 68 65 77 32 66 42
2595 -0.67357886484432694 2.0831437378682995 2.3167214446294371 134 175 143 0.16245747198340171 69 340 96 329
2596 0.84185345331292871 2.0109884128735946 2.7902149103352887 17 103 32 0.8233678332849067 96 336 51 324 52 402
2597 -0.58543330206594413 2.3190501941521839 2.5662212714574988 92 143 103 1.9585927891195025 43 182 93 136 87 360
4309 -0.64318738005844234 1.6472380512653311 2.6040047307805718 10 71 14 1.5843230385868687 37 256 73 262 3 428 72 449 11 410
2603 0.51574127974992756 1.6992664891941986 3.010222856433415 45 128 48 1.0489441812225511 43 191 96 414 87 213 52 364
4302 -0.16695340117692051 1.4255704217302796 2.8731974100826552 25 87 32 0.89817186779580538 37 301 73 222 36 370 33 411 71 381 6 361 2 323
2604 -0.60555262925247455 2.2635872278881877 2.4215549642958236 115 148 129 1.4892118635563523 56 308 96 422
2606 0.47476955195472353 1.3730840043479138 3.0175506182746585 56 142 47 2.0423610146470628 31 237 43 315 94 400 96 458 79 183
4001 -0.040772494055076311 1.3785363755091342 2.9056678336088813 1 62 9 0.3746471892964483 74 421 75 470 4 454 3 196 6 199 30 353
3280 -0.58339870087199464 2.2835969835690255 2.478343350274363 96 127 120 0.91408789929218037 40 366 78 414 16 150 42 366 77 408
2614 -0.70249301954396115 1.5290066226835857 2.5001013729702222 39 105 40 2.0245969424944446 43 9 96 7 79 6 87 11 51 23 52 23 90 21 88 16 54 35 89 28 55 28
4015 -0.58423462797841896 1.7821386120037055 2.280588953974418 64 140 58 1.1305951618234205 9 64 8 107 75 127 74 124 41 368 8 388 38 104 4 151
2620 0.45167262649448542 1.5357158924519134 2.7787010703395971 57 147 46 0.90615955663389325 43 73 79 80 87 74 51 80 88 74 52 79
3295 -0.6586262157053856 2.0830531920529123 2.3687276552591472 24 116 32 0.25996100458874871 77 257 42 174 7 374
2621 -0.58268174195176325 2.0033861016434162 2.2881367609911947 24 81 18 0.87666859845518064 31 78 79 88 87 265
4009 -0.44167867447387699 1.4614197123739467 2.8548817805670437 6 91 8 1.6921641433191348 38 239 4 397 37 460 70 524 66 191 74 433 67 211
3288 -0.33068225326060574 2.103036220239757 2.3758818536754882 34 114 25 0.3265876285288658 77 103 42 100 7 83
2622 -0.5029127454392549 1.6276486332276634 2.429456102939898 33 111 20 1.2429939389281133 43 107 96 239 79 106 43 416 87 112 51 135 88 132 52 160 91 77
2629 -0.34171215015999651 1.5655116350234533 2.3983024803994772 16 89 8 0.82299697308714848 22 170 79 129
4081 -0.82670723694489412 1.6413320157027476 2.6141746755192643 2 82 14 0.92224073136507168 75 381 38 342 4 225 37 275 3 236 72 260 35 167 12 235 36 238 33 332 6 404
2630 -0.41141061090133624 1.7420515686238651 2.3446510672855077 0 0 0 0.077459009264543077 57 134 69 188
2635 -0.395846709939012 1.6518274887079778 2.4186954632686111 12 85 3 1.3975536548081262 56 173 96 189 79 172 69 180 87 356
4095 0.078747587741026401 1.3564097902174823 2.751155535796451 23 105 27 1.0582969515701239 8 265 38 407 3 299 70 291 11 295 33 186 71 315 68 394 10 163 66 231 32 362 2 95 64 245
2638 0.48545311611013858 1.6342390924361139 2.720401240726261 47 139 40 1.1767149428423209 43 176 79 192 51 357 88 147 52 182 53 149
2639 0.045509887149173381 1.9618893533166797 2.6136607421792299 0 56 0 0.67563959567994814 96 369 79 196 87 367 51 355
6101 -1.133884829096373 0.63247757145974814 1.7581999645455082 136 68 45 1.0047551314962939 11 290 30 231
3371 -0.023890530076057254 2.0153222815265237 2.4655857948906204 53 137 51 1.5606542421201537 77 516 76 274 39 288 9 311
2650 -0.056114774407835008 1.4931968548675405 2.645529050558411 41 118 28 1.021123197570732 96 266 79 259 51 255 88 189 52 399
4047 0.37185235357625451 1.4619413757573299 3.3693820737108018 0 0 0 0.71820743018101774 39 183 74 82
2652 0.51759416014492599 1.6856514252635668 2.3268912158513699 43 130 36 1.0794740582991116 96 432 79 271 51 225 87 193
2655 0.72995639025069581 1.7031875254042239 3.1038242184809732 60 145 54 1.290260847851592 96 311 79 305 51 86
2658 0.73512843200161315 1.8841760932483236 2.9271068820199089 29 115 14 0.38765392191527837 43 391 79 315 87 323
3991 -0.72499617138640193 1.89352717795893 2.3913820224846325 49 120 51 1.7963089271590316 74 325 75 347 38 320 8 158
2660 0.41346803384101138 2.1873681896077257 2.9322751101506643 33 118 50 1.0833844375397659 43 208 95 374 79 327
2666 0.33546913902512604 1.8569605732071421 2.5229343944969531 42 143 35 0.23398244569611296 31 367 79 378 51 189
2667 0.52012060588924103 1.65669566523391 2.8858654120902147 36 115 35 0.3424712381239387 43 433 95 434 79 385
2668 0.62067489545405663 1.5098833655041408 3.1631894054347129 15 82 16 1.4376978233116959 95 232 79 394 51 417 88 296 91 428 53 270 54 164 89 145 55 222
2669 0.40111518750220748 1.480034103430788 2.8832277561381519 32 125 21 0.92399362349780312 43 316 79 407 87 352 88 366 52 383 91 220
2670 0.37060024986712758 1.4939232086660914 2.8131679433528567 37 126 20 0.020247388125604258 95 250 79 410
2671 0.096724968373612566 1.317974984483774 2.8390390606201374 60 126 35 1.2760528375141473 96 125 79 421 52 136 43 137
3554 -0.53371858506394854 1.7754070315968891 2.3319989636148635 0 60 0 0.85761181221903715 76 434 39 373 8 333 38 424
2675 -0.24946118334165385 1.9417980904886019 2.5274991821729782 46 106 46 0.88062186569734457 31 336 79 449 87 413 51 276 88 267
4065 -0.90917955009078533 1.6336555512652833 2.5365647684653032 20 101 35 0.85949290637563602 75 388 38 265 4 239 72 262 35 200
2678 0.22314831387437134 1.7809585998896695 2.5057420515918176 26 118 30 1.1066613881719076 48 170 20 134 15 122 85 158 49 130 86 140 21 130 94 178 23 199 56 212 22 194 95 185 69 356 43 291 79 348 93 360 96 433 43 300 87 400 87 407 51 403 52 393
2680 -0.22938452286829647 1.6758108284864561 2.3651439161175549 31 101 31 1.4273097652267865 93 292 43 247 79 248 93 103 22 96 31 82 95 120 69 117
2682 0.49927279197213958 1.6437357116579991 2.7617561841660829 63 151 55 1.9750227687652722 86 61 50 58 57 459 94 486 23 63 56 67 93 54 22 55 31 351 95 410 96 361 79 377 95 416 96 373 87 375 88 387 52 152 52 324 95 67 51 367 91 154 53 178 54 289 90 318
3562 -0.58395908122994478 1.5022263404951841 2.9018123351461615 12 95 25 0.52803612751021767 76 462 39 397 9 381
2683 -0.59155753149539136 1.6987680404396739 2.3207186153556352 6 47 6 0.59846754312161565 43 150 96 131 48 103 20 102 15 109 85 120 49 112 86 121 50 125 21 104 57 98 94 106 23 169 56 177 93 169 22 129 95 158 69 138 79 149 51 160 52 210 84 124
4079 -0.65523108912424433 1.6124772540071624 2.6716825510244666 31 101 34 1.9322056259261178 75 348 38 329 73 468 37 326
2684 -0.10426895858235218 2.285960717837848 2.6601820583232207 0 32 3 2.0410939234791199 96 159 79 121 56 342 31 312
4073 -0.37216392294110434 1.6405293795736635 2.4141855328196073 49 132 44 1.4150884630637877 75 451 38 302 4 167 72 206 12 311 70 302 71 321 32 159
2686 0.4948336462888332 1.6310236730180219 2.7795944451707935 13 104 8 1.298597474914974 23 273 93 352 31 352 69 360 43 401 96 362 79 373 22 399 31 437 95 409 79 367 87 202 51 193 88 384 52 327
2687 -0.5559179728053113 1.638318473753946 2.3456345328898993 28 74 29 1.766855402928009 22 134 31 146 69 177 79 167 43 144 96 179 87 169
3862 -0.90358991551914636 1.8917233049897024 2.3601784883713348 132 175 160 0.98425004372863778 74 269 41 250 8 376 38 187 75 60 4 329
2689 0.7468499920524827 1.8602372082341985 3.1627062442775014 110 163 119 1.8463325171223648 96 327 79 321 51 320
3860 -0.064145956178406349 2.0561987235673813 2.5320001359020967 0 67 0 0.44865120938726832 41 190 8 302 74 224
2695 0.05238440804776312 1.7609575117118614 2.5121202871680555 12 82 19 1.859588698438873 96 18 87 22 88 31 52 17 91 35 53 29 90 32 54 25 55 31
3355 -0.89893008334538205 1.832450340295015 2.4903667808249343 99 152 162 0.40480469400990182 16 350 42 375 7 176 39 449
2702 -0.37401206989952074 1.4887212453658718 2.3842466850914499 39 100 24 1.5352649733013106 43 103 87 80 51 209
2703 -0.042845950755282525 1.5089734985649694 2.329678557360487 52 123 42 1.0504201631960928 96 73 87 83 52 69
2705 1.327451437328262 1.5352081306078158 2.815079786063766 55 124 58 0.96252740542458393 43 115 87 128 51 141 88 354 52 93
3427 -0.71468443760597578 0.069230578585758484 1.9682329576861348 81 50 29 0.15827052097624919 78 197 76 207
2706 1.4628180845800913 1.1311637119615245 2.0843440560936957 140 66 42 0.51385905827955214 79 180 87 143
2708 -0.19441250549538308 1.726007945005358 2.3632780392073882 34 94 32 0.23924015353216777 96 122 87 148 51 169
5914 0.15289624031053803 1.3574739517892354 2.8046953759351476 32 109 37 0.44647869023437792 32 142 2 158 67 148 30 182 34 248 1 136 5 222 64 119 27 147
2709 0.70603947681306789 1.737453191543751 3.2245068822888259 89 149 112 0.26664044971306367 79 213 87 164
2711 0.13814379207860489 1.3211702568116015 2.8773784483963989 55 143 43 0.52863570415194316 79 269 87 188 88 193 52 254 90 130 54 146 89 120 55 113
3950 -0.61756901644592022 1.8181477457536777 2.4883569637934522 26 89 36 2.2867274095700103 74 25 75 26 38 19 37 32 73 53 3 18 35 49 72 63 12 38 11 107
2713 0.26489446139586476 1.328404261000679 3.2681898037702983 56 134 35 0.26036817680049595 43 325 87 195
3435 -0.55476808327573135 0.22912705851348258 2.1723482977802142 194 194 186 1.6013312167270253 42 467 78 539
2714 0.50254102671258916 1.7280998508342769 2.9845895109191671 45 128 50 0.11699343894907514 96 137 87 212 51 391
5936 -0.51630829506780407 1.5858031204334258 3.1191848878427835 19 83 32 1.4976361937524547 66 93 2 291 67 78 30 96 5 295 64 70
3538 -0.75064944270477874 0.15024927113822079 2.2996886997653103 205 207 202 0.10819289798861731 77 284 39 258
2723 0.84612678233894911 1.9125772763982947 3.0839334331551886 45 117 51 1.1535284384069795 79 431 87 331 51 329 52 298 53 306 88 344 90 294 54 262 89 249 92 289 59 169
3892 -0.17417411075260616 2.1766186206806615 2.4420447598278012 45 108 43 1.859251040657327 8 133 4 165 73 503 3 268 41 110 74 166 72 369 38 152
2727 0.46196493094085295 1.6016777171034731 2.6711435586552068 48 135 40 1.6733225236396942 43 269 87 362 53 325 91 214
2729 1.4265163205919489 1.2955700645828634 1.7231257799497963 203 203 200 1.7389954629363427 79 420 87 423
3900 0.71516337935697871 1.6268863977321295 3.0141947175493717 190 227 196 2.0004540717837989 8 241 4 280 11 270 39 260
3846 0.11370600101074703 1.3554092281439456 2.7660778589570132 6 77 1 0.81360542728612772 74 155 41 312 75 110 38 113 37 101 73 101 3 108 72 71
2737 0.30667823382236081 1.8789720391271592 2.5013654526874385 59 158 50 1.4813357735291544 49 364 86 204 93 385 31 195 95 450 96 384 87 384 93 383 69 226 96 208 79 200 51 356 84 433
3331 -0.084626200749544633 3.3726792573904021 12.732099893432901 224 222 248 0.069891544571666242 14 493 7 42
2738 -0.30714780475728293 2.0152855946840487 2.7312046042836351 9 52 11 2.4042658066846863 31 0 79 0 22 0 87 0 69 0
5946 -0.43074258077889044 1.5168480837023421 2.7016137005439949 36 93 42 1.6580587168532532 36 386 66 179 2 349 67 191 30 398 64 188 5 117 27 107 27 391 29 302
2743 1.2750564755226916 1.1068985466971919 2.2430230718411535 47 34 25 1.1423190055728114 79 264 87 428
2744 0.59072975814315465 1.6428263864209163 3.0062331679907581 49 114 51 1.5964368187634157 15 67 49 65 86 30 50 60 21 54 57 74 86 98 94 83 23 45 23 68 94 51 56 61 93 34 22 56 31 53 95 61 69 44 43 48 96 63 79 205 93 117 69 207 51 284 85 48
3854 0.82426112691459108 2.3195069890331417 2.9976664299980404 48 128 30 1.9501890400724666 76 161 41 48
2745 -0.11122042458764451 1.6206055418701624 2.3410229728040468 27 124 24 1.0195476954747478 18 14 45 25 81 21 17 23 82 22 44 21 14 24 46 20 80 22 13 24 15 21 85 17 49 26 86 23 50 28 21 35 57 32 23 23 94 36 93 24 40 35 78 29 16 17 42 29 7 21 84 21 20 20 56 34 95 28 22 269 48 20 83 16 47 19
2746 0.7193477235517971 1.9330267020644476 2.8112982870292069 24 117 12 1.6802418799179526 95 367 96 325 43 393 96 324 51 314 52 270 91 281 53 279
2748 1.3303663745629639 1.5368306256882993 3.0400085525857947 52 91 66 1.1697088896944274 15 251 56 314 96 143 22 410 43 426 96 333
2750 -0.35628516907029484 2.3595559235979215 2.7306961626787278 39 116 64 1.6138626281860553 86 469 50 482 57 349 57 246 22 441 93 317 15 300 49 350 22 320 84 324
2751 1.3413576573202119 1.1373588371958823 2.2277547257570114 26 21 22 1.8524917682173023 43 2 51 2
2753 0.45980703122585698 1.5223365289651336 2.8828008672540024 51 141 54 1.3926931489020586 79 17 87 14 51 16 52 18
3411 -0.93438127467240362 1.6891786436090019 2.5090700665887944 39 128 48 0.36775183801119904 77 60 76 47
2754 0.849935404519508 1.9201547282903844 2.8950430159690743 45 139 42 1.3965402050442093 87 13 51 18 88 22 52 22 91 23 53 22
5968 0.59219950186769854 1.8741847234616085 2.6508020949768558 156 179 155 1.0269823743794728 66 38 68 52 67 36 27 28
2755 1.3868847974301284 1.5531758933609956 2.7845012815942476 48 135 49 0.89077531522115627 43 15 79 13 87 17 88 20 52 14 51 20 53 16 90 24 91 22 54 19 89 33 55 18
2757 -0.22045711772197213 2.3251245016275837 2.8107648785396213 5 70 27 1.2858793215725204 87 42 51 28 88 51 52 40 91 90 53 80 54 287
3924 -0.57244996800685966 1.6091176083939267 2.4068997904856877 8 85 15 1.2407393237552564 41 357 8 367 75 167 38 274 3 430 37 363 35 440 72 391 12 170
2759 0.64038343715737134 1.6803132902058551 2.9907248776067452 45 136 56 1.520809437431349 87 27 88 26 52 20 91 37 53 21 90 28 54 39
2760 0.14867048385986442 2.1962371406175136 2.7577948967058998 27 103 41 1.269512700799275 43 19 51 43 88 62 52 51
2761 0.69271843933276944 1.4759934851833523 3.3809525701806713 156 173 175 1.8280019288553944 43 119 51 56 69 383 95 37 79 30
3117 -0.3715035466743169 1.9936946045739408 2.4302313186828726 17 107 20 0.47459734082514676 40 390 16 364 42 217 77 455 7 410 76 427 39 372
2767 0.41762601296870588 2.2662011372621893 3.154243585181721 106 161 155 0.51306773848193921 96 111 51 94 88 333
3491 -0.40969728395405197 1.9439050619161764 2.3995439299854344 31 97 29 0.27800794835279913 76 66 39 70 9 42
4159 -0.11930355230515775 1.5846075809108948 2.5022156390523786 8 76 15 1.5166559070918406 75 502 4 302 37 409 73 373 3 308 3 311
4014 -0.27927686074209784 1.9799498473304284 1.1860448525987204 44 37 27 0.90937910275913691 9 286 75 403
4012 -0.43283999774124143 1.6823877677851509 2.4144020801127568 5 99 4 0.98638831458223064 75 176 40 459 42 132 7 321 9 379 74 167 73 185 3 164 72 213 35 146 12 168 8 194 39 453 41 201 77 400 82 493 76 241 11 184 36 269 70 165 71 153 6 171
3133 -0.25524615034803599 1.9572761153120395 2.5173764706058104 46 136 38 1.6834817056890377 40 205 78 136 16 129 46 166 40 151
2783 -0.9702604059899278 1.7528201384772013 2.3865282496664846 16 45 20 0.59789369114180579 43 229 69 424 87 421 51 218 88 210
3443 -0.0022063577056207011 1.4449981613732481 3.0331881657621564 29 93 32 0.64600481466109572 42 307 76 317 39 485 9 463
3956 0.74672919400912496 1.5350253511447616 3.5510449471630889 46 104 49 2.6695804572881237 74 58 4 43 37 27
2791 0.66266726714295088 1.479424504614631 3.1724555942595338 20 86 26 0.60642891382988084 43 336 51 289 53 394
2792 1.4046599838152072 1.0630918652715307 1.9190369381691095 0 0 0 1.0212872084379443 95 51 96 88
3966 -0.11721124903512921 1.6157544887107864 3.3114854070867366 112 156 152 1.5187294783348537 75 133 38 81 4 107 37 96 73 138 8 201
2794 0.54107664831603375 1.9261843991497014 2.8043322177270325 6 95 13 0.28227848034448932 95 350 51 300 88 303 52 374
2797 0.29985715118215184 1.8111109775504055 2.5032988260498672 48 131 46 0.629186111395305 96 354 51 323 88 391 53 379 90 279
3964 -0.42672029243673532 1.5642107977790107 2.4904704493775864 13 101 2 0.23145429386333141 74 127 75 123
2799 0.39777181746760643 1.6839713768504034 2.5708483719127253 0 0 0 0.025379463984054315 56 420 79 352
2800 0.87748673501532981 1.9465615207535107 3.032251690167171 123 166 152 1.9367809356226999 51 333 91 297 87 335 52 302 53 401
3395 -0.57950643618151121 2.1075391310460141 2.2798580967174042 40 138 31 1.0561851141216854 44 81 46 104 80 87 13 352 40 98 78 387 16 64 16 330 7 88 77 120 42 108 76 124 39 102 9 106 74 130 41 150 8 85 75 92 38 175 4 114 73 174 3 150 45 122 81 127 82 82 42 344 77 382 37 169 12 210 35 170 72 219 11 461 36 191 70 495 83 103 47 110
2802 1.0883122613194041 1.9426797169321517 3.3066015795609438 170 186 211 0.52253963944811144 69 349 51 341 88 451 90 316
2803 1.0073652337427357 0.93282137385963337 3.1530440312542898 210 188 193 1.5078887061099162 69 280 52 346
6010 -0.18105489131491215 1.6239101942036418 3.2159917371205609 39 118 53 0.29492585391351916 66 290 67 306
2805 0.52515365154299498 1.7359720932604277 2.7625421427590755 43 142 42 1.2939766781258397 79 390 96 404 51 386
2807 0.25547752978601046 1.3208993180599353 3.2020918523408541 39 85 39 0.52456397868888704 43 425 51 402 88 312 53 338
2809 -0.93381117134641367 1.7946649342373078 2.3633418521888037 179 211 187 1.1520795436806706 87 231 51 406 52 396 88 367
2810 -0.91587758959286736 1.8347024644813354 2.3224095258595865 14 71 19 0.40808115291634872 95 484 51 407
2817 0.63055415731537701 2.2121201277705351 3.1474365411877141 127 164 180 0.017479237348089739 96 164 51 338
3250 -0.58653939099380981 1.962091769499992 2.3965267465563174 7 89 15 0.83081407484903635 46 453 42 331 7 357 39 421 9 407 8 231 4 379
2821 0.50781773203608138 1.5089268454436131 3.1407489948758998 47 133 34 0.82975199650240394 51 17 87 18 88 12 52 11 91 14 53 12 90 16 54 13 89 14 55 14 59 12 92 13
2822 0.94309145656549176 1.9482503667940894 2.9903559655579088 0 0 0 0.86911495433245889 87 16 95 16
2826 0.57057403905592829 1.8679683006520351 2.588957849351337 10 62 14 0.21758335941014828 87 404 88 92
2829 0.88179074226965903 1.9362273502602234 3.0548173215759875 122 166 141 1.3288086913091064 51 139 88 128 52 94 87 75
2830 0.56553857509742966 1.6246761769342222 3.0445576381418635 11 88 10 2.3864866607154656 51 100 88 142 52 366
3769 -1.2158486506274644 -0.079999541962530868 1.8372976608644511 113 48 16 0.27108395325561574 39 114 41 175
2831 0.58404141061611592 1.3773990455865011 3.2212818126623368 24 92 13 0.43553855769918337 51 379 88 156 52 358 53 190 91 267 90 185 89 186 55 166
2833 0.50411342796908021 2.2520519583747092 3.2104883915303417 125 172 163 0.3862724047538903 87 158 88 164
2835 0.6101141058501276 0.87828469656578823 2.7935304917700723 25 25 23 1.9352546872558976 79 226 88 243
2838 0.0572846560152898 1.4306760353955432 2.694728316248455 2 83 0 1.4135579308732047 87 268 88 256 91 369 54 225 89 302 55 239 59 227
3713 -0.41502605041632445 1.4639392194789334 2.6350447407426474 15 78 21 0.51840633999357022 9 453 74 168 75 171
2841 0.64610832298057874 1.594688829853057 2.865478725264945 40 116 39 0.69976595115430884 51 388 88 281 52 356 91 255 54 308 90 142
2842 0.63634121340279337 1.6310938973219753 3.1254325142304862 46 125 42 1.9161218579339194 96 298 88 310
5781 -0.23364813028758796 2.1517462219898769 2.4251587053468935 32 127 49 2.029588475217301 49 419 86 439 50 489 21 149 49 212 86 229 56 461 22 205 56 222 93 137
2843 0.14276239330982582 1.2965846853435914 2.9241576475074842 99 181 96 0.85665539310011252 87 278 88 314 52 255 91 388 53 266 90 128 54 150 55 115 89 124
3210 -0.26105934015160159 1.7983513016544495 2.4071356327239477 3 66 0 0.12999894742522253 77 153 42 137 7 132
3727 -0.94348583117035567 1.7219411934866506 2.4655011288683468 48 119 64 1.228015794204713 39 110 74 343 8 363 4 471 35 308 3 237
2846 1.2792014418862023 1.5886074653524116 2.839390399845656 171 211 189 1.2501055855775456 51 326 88 353 79 325 52 304 53 143 91 164 90 305 54 174 89 257 90 307
3721 0.013064263331912416 1.5865737722021658 2.5308688292740622 40 107 35 0.87848404670997005 76 538 74 212 41 247 8 272 75 305 38 415 3 296
2852 0.40526674841362098 1.6133168164934282 2.82886548641999 45 136 40 1.8387285457993126 51 353 88 375
2859 -0.027041272223842217 2.1546911664557129 2.5574017285407282 7 73 9 0.64148288464896808 43 346 88 449 91 210 53 291
3162 0.10395828064119944 1.7132828436137275 2.4402567115735492 51 132 40 0.94835442002839221 16 176 77 336 42 296 76 346
4565 -0.17667816112467205 1.430203490515632 2.8118280731481242 0 61 2 0.46362687589490803 3 469 72 482 35 430 12 444 70 463 36 450 11 446 33 387 71 429 6 448 34 350 68 350 10 319 32 209 2 370 30 333 1 328 27 424
2860 -0.75944515054236017 1.8928619396283968 2.4030194409989294 22 74 20 1.6696455627370994 31 271 69 284 96 448 79 142 43 92 88 186 22 282 31 267 95 305 69 310 43 257 96 446 79 254 87 255 51 249 52 140
2868 0.72375886812851431 1.5576353784492474 3.1161364553506106 43 116 44 1.8658792376476239 88 41 52 48 53 27
3745 0.068603654369167294 1.6791108961892922 2.5658960086799398 12 82 19 0.65665394977246472 41 19 74 17 35 23 72 26 12 18
3544 0.13077653308147058 1.3213715602934377 2.8743023962545031 40 114 32 0.27705530341806489 7 256 76 328 39 291
2884 2.2084963347844839 1.5614755532244684 1.1823566595058519 19 20 31 0.11574345894033918 79 440 52 222
3831 -0.9546858651109621 1.6700197323748434 2.548230621397201 49 125 72 0.96060359052754274 76 118 39 105 41 144 39 361 74 346 8 440 75 390 38 414 4 339
2890 0.61169863936715296 1.9019524289221461 2.980801870443397 15 106 11 1.3881359289871038 87 315 52 267 91 282 53 280
2891 1.6968787489867854 1.2876693118128999 1.8766396943614001 147 66 37 0.20163589194151602 51 222 52 268
3322 -0.55195214402809722 1.7329313206629304 2.3322438839645314 20 74 20 1.0435391334732356 13 150 18 161 45 161 81 117 17 147 44 152 14 171 46 168 80 129 42 123 76 112 39 132 9 194 41 164 8 200 75 168 37 164 83 172
3839 0.29359972206348495 1.6576536150638868 2.5910043758893604 0 66 0 0.95607105591281261 74 205 41 296 75 295 38 392 4 462 36 297
2896 0.56667115561479242 2.1360665869090676 2.9713531414056473 36 109 48 0.33288152480062638 96 332 52 282
5827 0.16801951980557053 1.2579582045678031 3.0238354351957017 1 59 8 1.0284729889353497 66 56 32 141 64 92 65 351 28 115 63 133
2899 1.3803818500029517 1.5297704085850579 2.7832988009694777 48 107 67 1.1129786707831912 43 204 52 312
2900 1.3102111346718148 0.24400139153885589 2.334397677803425 253 224 251 0.40616168511480666 87 347 52 321
2906 1.1425838140178515 0.9957531541351391 2.9354359212971133 0 0 0 1.9438195137868144 79 435 88 399
5845 0.56232171871777548 1.3451258701538875 3.3539474301983692 41 121 54 0.3420914474992473 34 391 32 260 1 383
2910 0.6795278520752952 1.4761756571587132 3.2011757801016101 52 132 50 1.5365753240138427 88 441 52 377 91 352 91 424 53 276 54 166 88 141
3785 -0.91556098483345938 1.7005729192761887 2.6290331686603139 99 143 141 1.8043293576534249 74 367 41 244 75 391 38 348 4 231 73 387 3 351 72 335 72 472 35 169 35 445 12 147 11 430 36 338 37 266
2912 0.43933547044755855 1.6152165020379512 2.7108294127124348 0 81 0 0.33288883744032194 87 363 88 368 52 382 91 218 53 148 90 208 54 283
2915 0.50934571086989922 1.6696920712667047 2.4742880748615277 40 127 38 0.58495041686556237 88 416 52 390
2918 -0.29716423540165393 1.7302111959374151 2.3937290492220136 38 100 38 1.3828087528182755 94 167 31 264 52 139 87 149 96 124 88 127 91 359
3729 -0.54044657433707533 0.17955958210199807 2.1873228680577523 194 192 180 0.92471810227059481 76 272 74 356
3226 0.24566102314422439 2.0203825747337896 2.6230797297960993 14 72 11 0.75188342064868197 77 224 42 202 7 379
2924 0.8589318493602377 1.2438261408352149 3.1718933071094515 167 186 180 2.2450726631573503 80 2 78 2 39 2 4 2 40 2 41 2
2925 0.15205940830975334 1.9595136380868543 2.5159349831828415 25 91 27 1.2581748142695475 80 6 40 8 78 10 16 9 77 18 42 18
2926 -0.16109879488908038 1.62189746592675 2.4810029422748929 14 87 16 1.4445789796441522 80 16 40 10 44 11 78 7 77 7 42 10 7 10
3737 -0.6216209165391583 1.7708327053455013 2.5558771486640031 0 65 4 0.29421048558026897 76 493 74 470 41 415 8 293
2927 0.008011255062797101 1.3707300284835178 2.9867015023433732 27 76 20 1.7546522039485695 46 43 40 20 78 21 80 64
2928 -0.59127379591357887 1.7134570050855529 2.3469357603553065 27 111 33 0.83027181798947269 46 17 80 26 40 27 78 27 77 28 42 33 7 27 39 40 9 29
2934 -0.52959804251562692 1.7684761478248274 2.2386912042417948 47 133 30 0.90668015221814191 13 152 82 169 16 209
2938 -0.80736725784181496 1.7723922646860899 2.4367809651309815 5 76 10 0.53292074852860283 46 81 40 120 78 161 16 111
5877 -0.75679790104510336 1.6789745575228729 2.5429509852674292 12 59 13 2.1795162737177796 66 305 32 196 2 361 30 405 1 394 67 187 64 233 64 357 27 186 27 402 29 168 65 328
2939 -0.61489662494182851 1.7122158330456783 2.3841639479981134 8 94 22 0.59776516615116859 80 126 40 123 78 166
2940 -0.58492118926647707 1.6177335845924212 2.4155457763743491 11 85 23 0.73343939472596542 78 133 76 137 9 196
3823 -0.1278001807568816 1.4842144526092489 2.6430772194134837 28 111 31 0.57638716211501906 74 443 41 484 38 291 3 317 33 468 71 310 6 306
2942 -0.82523001695304377 1.7863467418852121 2.3992944040760542 43 121 59 1.3094123769041051 13 242 40 142 78 186 80 390 16 109 7 94 42 157 77 176 76 192 39 237 9 228
2945 -0.75375793432004701 1.9711510810813901 2.2482094270200368 51 146 47 0.49139624003468763 80 172 40 156 78 179
2949 -0.3188985000670862 1.4913682800143588 2.7087403602377034 0 50 4 1.4838102171653893 46 207 40 191 78 143 16 186
2954 0.51266573070067323 1.5971179559881417 2.8273972046557887 85 160 78 1.306757109044018 13 187 40 256 78 208 16 169
3099 -0.6447592248873717 2.1745234974340351 2.2697729494700809 52 147 71 0.46028365447669622 80 166 16 152 77 260
2958 0.33806524194199089 1.7025848563427928 2.6064398557360251 47 120 42 0.58334997426169033 13 279 40 276 78 304 16 271 42 475
5151 -0.90728562940409141 2.3299792915236544 1.5505769115591572 133 64 45 0.65528694350454275 11 288 33 258
2959 0.40540086776429879 1.7891770700005498 2.6075693481048883 23 101 15 0.53140566754284202 13 287 40 282 78 307 16 162
3612 -0.4538055218572985 1.7625642411765605 2.3357295454501332 9 50 20 0.33858023273357396 39 92 9 84 41 82 8 65
2961 0.074506110627193436 2.0392474069629967 2.558629823697494 19 99 12 1.8827079997223028 46 343 40 307 78 361
3686 -0.32230579399141718 1.4553512726698337 2.6490361642770619 10 86 16 0.35432439809158123 39 255 9 314 41 473 8 301 4 438
2962 -0.68788135077612433 1.8764984677411924 2.4898064126777144 11 95 18 0.14960651993946841 46 459 40 337 78 377
2970 -0.62390071975047567 1.7235827624361091 2.6385146151615828 7 65 17 0.2600926362891478 46 397 40 418 78 457 16 386
2974 -0.13024370569840513 2.039072847843967 2.3243374845574403 43 124 29 1.4013108593743242 46 18 40 460 16 326
3692 -0.47856568196711347 1.7524165867379196 2.3465461365661304 46 127 48 1.2463404117479402 46 110 13 108 40 206 81 396 45 162 82 174 14 407 46 173 80 195 83 419 47 250 47 439
2978 1.645179004547819 1.6835567754261735 3.6336683230975404 35 76 27 0.97433860034608322 46 281 40 116
3123 -0.63301942018990098 1.816637523180521 2.4437122438030894 12 75 23 0.58245397213230332 40 432 78 491 16 404 9 400
3793 0.63981967230615377 1.6245314801587396 3.012108733619121 5 66 1 1.4767656974944861 76 213 41 279
2986 -0.39417584739600442 1.722042120024037 2.4051985454460798 36 135 26 1.2093326285068555 13 27 40 462 78 28 16 491 42 28 77 27 7 24
3131 0.85735029899907123 1.9724804224404451 2.8337181389426287 96 135 93 0.45186017077702267 40 77 78 78 16 73
2990 -0.89980692463012768 1.7907276124292626 2.4758386452801009 36 127 51 1.0233547923427624 40 43 78 56 77 52 74 43 41 32 8 30 38 44 4 27
3801 -0.97114308970949714 1.6621758166905591 2.5611975328635275 105 151 140 1.9020012420133148 76 194 41 363 38 192 38 492 37 351 3 349 72 481 35 458 12 469 36 335 75 249 33 232 36 336 70 456 6 413 37 349 34 404
2991 0.02496754223808691 1.7175661459949196 2.4287438092278641 11 96 13 0.27230758188506399 40 67 78 59 16 76
2993 -0.62820936885192191 2.181368700983231 2.1936882145738075 159 185 181 0.20905230171775077 40 51 78 67 16 37
2995 0.084601707685324642 1.3700240222220144 2.7178050030488485 15 93 17 0.96405261204810555 77 95 42 94 7 77 76 72 39 89 9 76 74 115 8 78 75 124 38 89 37 138 73 116 72 295 35 122 12 139 70 176 36 139 11 286 73 359 33 101 71 311 6 98 6 243 68 400 40 78 78 83 10 161 34 165 16 72
2996 1.800033212506382 3.0412267699492208 0.90321592297184017 141 59 49 0.3848168669042451 13 493 78 112
2997 0.080798599472980931 1.9567321809616511 2.5565930893700659 16 94 15 0.77540806777458426 13 53 40 138 78 120 16 89
5690 -0.63237975055492068 1.5769280430909933 2.5471210538681239 22 75 19 1.0298401250734244 10 49 68 41 66 61 32 68 30 58 5 57 67 108 64 54 27 64 29 65
2998 -0.53905794462505296 1.5542493235812529 2.7439400590601033 26 107 30 0.26132060506269456 40 107 78 123 16 102
3001 0.073362336758723765 1.4368632742592569 -0.32691049473692585 118 65 48 0.97076803926039013 80 163 78 149
3598 0.30893305530397103 1.7631497008907087 2.6843690448231845 9 83 1 1.0127595007520147 76 334 39 298 9 284
3002 -0.62036820136207282 2.1521413397189462 2.2722739934426177 53 152 61 0.77976593478450473 40 168 78 180 77 395 39 247 76 187 8 224
3007 -0.12070106132522165 1.6074159927053364 2.5270218105616715 5 81 8 1.4948599959434077 40 383 78 218 16 65 42 310 77 386 7 129 39 188 76 229 9 303
3596 0.16633229627206672 1.6170144584384196 2.5121366808494185 13 88 5 1.1473510370202027 76 329 39 293 9 167
3009 -0.34352243998205134 1.5335733851894362 2.6957121711620045 0 49 0 0.27949340223800789 40 193 78 222
3010 -0.36066952622725035 1.542613172227709 2.8341044349237148 32 95 35 0.34521672474140908 40 296 78 225 16 235
3155 0.38693581113101189 1.3628976039412239 3.1301281581655016 19 86 9 1.8606957711667829 78 283 77 212 7 188
3015 -0.69996973223758063 1.7888209731891185 2.5619153397095493 46 133 54 0.55375708715298189 40 174 78 254 16 431 77 252
3668 0.016442862209516563 2.2893997387834557 2.6224737216219269 60 135 50 0.83129679257108868 39 458 76 500 9 445
3026 -0.0081826075032677588 2.0258828740467165 2.492034527470103 22 104 4 0.23538549844777812 40 251 78 316 16 320
3031 -0.14152374041262802 1.4548469680327876 2.9764845651294265 37 103 42 0.51022219929744161 40 304 78 338 16 301 76 231 39 313
3381 -0.66096681532210588 1.5881936412923561 2.6147006277677169 0 62 14 1.7794481826801398 77 465 7 404 76 477 39 409 9 393 8 273
3748 -0.21230413295569797 1.6218460824602778 2.4786464039766463 12 83 15 0.83214830770190074 74 53 41 50 8 44 75 51 38 32 4 25 37 26 73 26
3033 -0.15114314212723606 1.4772349460608747 2.8800407758745656 41 122 36 0.26833870296653656 40 305 78 341
3758 -0.96241169878927368 0.014991271672940393 2.0935252152111694 38 23 16 0.71656640368368651 42 118 41 116
3038 -0.2856126392227345 1.5138987083710411 2.8860477426236453 30 97 34 0.41204204466975947 40 388 78 356 16 480 77 512 42 466 7 306
3039 -0.64440807079300111 1.8776630999077333 2.3132189708415436 47 136 50 0.8339357270037967 40 324 78 363 16 420
3041 -0.85979817292610528 1.7092677077585503 2.4180508515923815 28 132 43 0.86559561914858951 78 385 42 355 7 369 76 492 39 342 74 333 8 356 38 338 4 324
3702 0.91625764932322173 1.8712683404231159 3.0237367232415906 30 83 26 1.2026663535763431 9 50 74 34 41 36 75 48
3042 -0.92428003382977042 1.6617328483221059 2.4831262835483288 43 148 60 0.66031316045317623 40 231 78 391 77 409
3187 -0.58004802763768337 1.514607932152215 2.521383787052101 27 130 23 1.0251573585056111 39 69 9 43 74 73 41 64 8 55 73 79 72 65 35 91 12 90 70 71 36 72 11 90 33 96 71 76 6 90 68 72 66 87 1 81 75 64 76 56 4 64 37 57 38 67 3 62 34 84 2 74 32 88 30 91 64 80 67 73 5 82 77 77 7 47 42 55 27 76 63 76 29 82
3045 -0.98628249722946182 1.6194879207786568 2.5712049140004409 107 156 141 0.78595213508007333 40 482 78 396
3049 -0.90652032264397553 1.8210309854740341 2.4993019988290568 41 119 67 1.5099316945306875 40 359 78 407 16 155 46 373
3710 0.13891624888050919 1.3495403646150239 2.7898284060401104 33 110 29 0.36613005769055001 39 178 76 216 74 152
3052 -0.71904512993193181 1.5345624912618012 2.5203650164541451 1 53 0 1.460668119364912 40 213 78 428 16 448
3054 -0.33608190060768173 2.0404246379674214 2.3147950224379708 24 112 12 1.6818508434822312 40 214 78 431 16 335
3057 -0.65488293104979511 1.64918210065782 2.6692615896220881 0 68 8 0.27894586669921317 40 402 78 443 16 373 42 428 77 486
3058 -0.41274453466049926 1.9853494207932805 2.4259663692339242 12 105 14 0.16315313757947678 40 407 78 444 16 374
3059 -0.65427764897338714 1.6969003181547302 2.4387077053660087 28 100 36 1.20069517255743 40 403 78 447 16 367
3061 -0.63446214378899168 1.7275976628626049 2.451810783545683 28 102 40 1.3156771369060918 40 405 78 452 16 492 76 467 9 375 8 403
5754 2.9004148347225924 2.3812278881942817 3.5429830942663889 0 0 0 0.71926549811122142 71 362 93 130
3063 -0.50434106846223048 1.9222691019578073 2.4208395870194535 41 116 51 1.7392974844235649 80 472 78 459 77 476
3652 -0.80839521718596741 1.8564209694188278 2.318326053349435 27 131 38 0.78194620895214761 7 169 9 330 41 342 8 352
3064 -0.67858342719788134 1.7007631494692481 2.4953915577340395 27 95 37 1.3655511306007539 40 421 78 463 16 378 9 409
3065 -0.68504354736985651 1.6390356345042589 2.6610440291741178 3 78 13 0.44517764718248065 40 413 46 411 78 475 16 379 42 443 7 441 39 444 76 373 9 429 41 375 74 264 8 170
3662 -0.65994888933027984 1.7173723942047587 2.43823166451133 1 66 12 0.68646690979321001 39 220 9 408 76 475
3070 -0.48722082946192957 1.9508226417216556 2.6461683284871982 41 116 51 1.5464671880512935 40 443 78 497 16 412 42 315 77 355 7 443
3072 -0.60445232619824862 1.8900071242250138 2.2957671377471716 8 90 16 1.4414172626076172 40 436 78 501 16 406
3073 -0.57714204924423262 1.4746701784032452 2.9139059303836383 35 86 47 0.4797675564268597 40 452 78 515 77 451
3074 -0.16010526026576793 2.0432268274063947 2.4155282897563821 53 145 38 1.1685364022499991 40 453 78 519 16 467 13 472
3078 -0.57044731655801906 1.7579531520217773 2.300290721845629 0 65 3 1.3560746413619167 17 136 82 120 80 111 40 75 13 93 78 90 17 364 82 252 44 222 14 215 46 248 80 255 13 228 16 95 77 104 42 81 7 71 39 95 76 84 9 85 74 86 41 83 8 66 75 83 38 79 4 95 37 90 73 86 3 101 18 158 81 280 72 88 35 94 45 252 83 125 47 120 47 386
3082 1.5979001777286888 2.4609453994704387 0.4391187231790521 137 70 47 0.0056240739225215334 46 308 78 543
3085 0.57497723352949448 1.5236985910728951 3.4677678986909752 0 0 0 1.4662498094706926 13 4 46 2
3088 -0.89291620297945695 1.7795227152134603 2.5546264222986652 50 122 82 1.9338712046768309 40 23 16 24 42 27 7 26 39 25 9 24 74 50 37 97 3 84
4483 -0.065609598304184225 1.4948495345928614 3.1984423515798137 14 40 18 1.1613812499771168 73 82 3 71 72 58 35 50 11 28 70 55 37 83 33 38 6 36 34 27 68 36 10 17 66 29 32 41 2 22 67 30 30 37 1 19 27 38
3089 -0.80794846149774335 1.9311889284026009 2.2574347953799507 48 149 73 0.98643109971343501 80 43 16 25 42 51 77 59 7 31
3090 0.087539737538251144 1.667837290147224 2.4175869848263285 40 122 34 0.38110110055024127 40 34 16 31 77 49 76 78
3093 -0.47723103360758118 1.7576207007877536 2.3105249607791545 0 41 1 1.2362896309988556 13 59 78 102 16 58
3097 -0.80163401356934594 1.7396672679588443 2.4029013177184106 12 94 20 0.49723556964696086 40 128 16 115 7 108
